# 3D point list with one line of data per point:
#   POINT3D_ID, X, Y, Z, R, G, B, ERROR, TRACK[] as (IMAGE_ID, POINT2D_IDX)
# Number of points: 363, mean track length: 4.235143769968051
89 1.1322932863596562 -0.146205302792938 0.14559135791929825 41 48 68 0.2071212388874121 88 786 91 901 92 730 90 733
90 1.1620062349696803 -0.026890526903948525 0.14519751821652913 71 69 66 0.60965801250164386 88 809 91 799 92 619 90 562 86 872 87 837
91 0.14847779741197434 0.14875578877711282 -0.021126260038011435 19 23 32 0.19909415439291764 88 811 91 593 90 768 86 683 87 621 84 650
92 0.39187563578959583 0.22542409782775324 -0.080801466709217409 15 15 24 0.28866724592832543 88 815 91 932 92 647 90 771 86 879 87 853 84 837 85 574 83 543 82 782 80 695
93 0.39606396457798609 0.24776335646268788 -0.078774338275263964 52 53 63 0.15084207533676527 88 816 91 933 92 649 90 905 88 931 86 1000 87 855
94 0.69400358306015464 0.2348584859898746 -0.064936145844013832 65 69 78 0.47575572660511123 88 819 91 938 90 609 86 696 87 659
95 0.69450083955812225 0.23278719669713777 -0.061252415275440286 65 69 78 0.20830734493688066 88 820 91 939 90 610
96 0.72755979005906701 0.20718311966353861 -0.036620811784838503 25 29 38 0.22191946500180113 88 822 91 826 90 772 87 658 84 691
97 -0.15892425491909312 0.22729686486259973 0.22242435752309533 34 38 50 0.55192199923125751 88 830 91 614 92 505 86 894 87 958 84 943 85 891 83 907 82 936 80 1133 81 1162 79 1318
98 -0.14262526572172746 0.21709870090613792 0.20464520504929648 89 93 105 0.26387547043782578 88 832 91 615 92 503 86 897
99 0.050138435680482818 0.31249384747248021 0.026047383133978558 16 19 26 0.25873360773073267 88 837 91 836 92 660 90 782 86 902 87 862 84 850
100 0.59270724553869747 0.2731545977095986 -0.084359810273363936 27 31 42 0.26631999935540163 88 839 91 825 90 608 86 903 87 864 84 840 85 599 83 550
101 0.63286286781024437 1.2107668932325746 0.096416651911628098 17 29 34 0.15077514625281996 88 869 91 865 90 815 87 887
103 0.61464604584003912 1.3778184429571994 0.14049279390615241 171 170 175 0.44003923010867463 88 877 91 967 92 695 90 819 86 939 87 745 84 745 85 440
104 -0.17505957538440386 -0.30948071223916385 0.2297723477235499 47 55 74 0.12611207679934464 88 888 91 872 92 705 90 839
105 0.13238609873011159 -0.28619137750072143 0.17871862822780329 40 44 56 0.34078511696477243 88 890 91 724 92 579 90 699 86 952 87 898
106 0.1017194841564453 -0.24960480831426043 0.14825651677655546 24 30 43 0.14528715015792468 88 891 91 891 92 709 90 842 86 951 87 910 84 893
107 0.84027827318614667 -0.21493513994339722 0.10373903383104363 28 34 50 0.49095593077650718 88 896 91 885 92 716 90 847 86 959 85 684
108 0.026975172219285859 -0.1378162915624517 0.1214882762473338 23 26 33 0.23625522975105945 88 899 91 892 92 721 90 853 86 962 87 908 84 906 85 793 83 798
109 0.21080231158421311 -0.057004183838321371 -0.021161968370899065 39 43 53 0.81869724377735009 88 903 91 908 92 724 90 857 86 964 87 933 84 923 85 809 83 882 82 851 80 985 81 1006 79 1147 16 3366 17 3469 61 1330 26 2017 60 1491 50 719
110 0.32518452090775751 -0.072257104100040853 -0.069005789186880787 24 28 37 0.282450094706438 88 904 91 893 92 725 90 719 86 965 87 934 84 772 85 695 83 669 82 724
111 0.35735111382441243 -0.076180623467368841 -0.078431248337733392 23 27 38 0.2031726804563454 88 905 91 894 92 602 90 720 90 859 86 966 87 935 84 909 85 810 83 883 82 853 80 1077
112 0.90806766853997878 -0.064090432746157361 0.084853419303646871 15 18 25 0.27250485656120865 88 913 91 984 92 728 90 868 86 976 87 815 84 808 85 721
113 0.0093819751363946047 0.084518218514886306 0.06961985505510318 32 35 44 0.28489055676397262 88 920 91 803 92 622 86 984 87 943 84 935 85 823 83 824 82 867
114 0.18987763538451449 0.12063250127188706 -0.045051545323449141 23 26 32 0.32457886209557074 88 922 91 920 92 739 90 890 86 988 87 1022
115 0.67661514858549865 0.15874101640249946 -0.06856722452948899 56 60 71 0.31888546823926184 88 934 91 924 92 753 90 895 86 1002 87 857 84 821 85 737
116 0.67544297829671684 0.16099947717815283 -0.075690110634595867 56 60 71 0.17760149048987564 88 935 91 923 92 752 90 896
117 1.0829755780570576 0.15493367445293982 0.11819175517627303 3 3 3 1.2972095584103003 88 941 91 928 92 758 90 901 87 972
118 0.19105141975443365 0.31624918139363989 -0.040603764651345423 39 42 49 0.28746222748211103 88 944 91 946
119 0.87959529895650446 0.24209888865612245 0.088977177443059746 69 73 84 0.31783817195203851 88 947 91 941 92 760 90 909 87 984 84 695
120 0.010276662005235734 0.65123886978288692 0.64410205322173286 7 7 6 1.3251888499952367 88 951 86 1019 87 990 84 962 85 846 83 855
121 0.68289823491354629 0.8154416762388389 0.55335628285002747 3 3 3 0.38459385305810501 88 953 91 955 86 1022 92 769
122 0.68718574052104575 1.0680142902338665 0.40911657039626015 0 0 0 1.7406862839090387 88 958 91 957 86 1025 85 852 83 859 82 898
123 0.1958756396679642 -0.34945127599559245 0.1924058083512715 62 66 78 0.21711205000612996 88 970 91 969 92 778 90 941
124 0.16780806407369417 -0.29153696104766846 0.16136675399836134 104 111 128 0.2031111658743523 88 980 91 876 92 710 90 843 87 900 84 896
125 0.79801962061461507 -0.20213804005030236 0.11082655454100312 16 15 21 0.46727122081755107 88 984 91 978 92 791 90 947 86 1047 87 1010 84 916
126 0.97961706430928086 -0.18932364533519422 0.15001975722938823 32 38 53 0.52293342313224855 88 986 91 979 90 953 92 840
127 1.1147106264827245 -0.19540296290648265 0.18124935461397648 106 109 119 0.64753681802406915 88 987 91 980 92 795 90 954
128 0.011311095837245461 -0.058715861840920397 0.10159531604714248 59 63 72 0.39059486534872817 88 989 91 906 92 723 90 955 86 1099 84 1042
129 0.23408252715108216 -0.096684925700785379 -0.021639685282229315 24 27 35 0.22664857038681496 88 990 91 977 92 800 90 951 86 1100 87 1052 84 1035 85 877 83 926
130 1.1943077303599019 -0.11782872898922878 0.16865292219530445 85 86 86 0.69724006674420724 88 995 91 903 92 731
131 1.183575161469361 -0.06675281874092151 0.14815672449543518 68 69 71 0.24852947371661355 88 996 91 913 92 804 90 885 86 1056
132 0.42090432699323677 0.13181790438859634 -0.076598389321477542 17 18 23 0.32459282042800525 88 998 91 989 92 810 90 891 91 922 86 1058 87 1023 84 1004 85 890 83 905 82 926
133 0.55776907361672778 0.052056779929891744 -0.089193740761012677 24 28 37 0.34033559703862837 88 999 91 1021 90 956 86 1059 87 1024 84 995 85 827 83 825 82 872
134 0.61228334922759009 0.12712654358974929 -0.082569365448816198 61 65 74 0.4355146132849656 88 1000 91 992 90 963 86 1060 87 951 85 834 83 829
135 0.49674406277218597 0.17335297354928103 -0.095630461974387737 43 46 55 0.24533787912440744 88 1001 91 990 92 812 90 961 86 1067 87 1032 84 1005
136 0.60375699814889083 0.1535493751181658 -0.077699963754381721 16 19 24 0.45147574382885486 88 1002 91 991 92 749 90 894 86 1068 87 962 84 938 85 835 83 828 82 784 80 672 81 269
137 0.63368756837152396 0.17686997975077873 -0.075470839914003329 40 44 55 0.57171035965898631 88 1003 91 993 92 813 90 964 87 964 84 838 85 740 83 736 82 634
138 -0.12142271216336456 0.2316800069813128 0.17454218759379539 31 35 47 0.2894480036365466 88 1007 91 929 92 759 90 902 87 1030 84 1011
139 0.36676582949456038 0.25321262867840499 -0.090973669639008131 17 18 20 0.58325190245186653 88 1008 91 997 90 904 87 961 84 946 85 752 83 836
140 0.39866833633382348 -0.38377519311456221 0.23107598872406196 132 129 133 0.69153627083013325 88 1023 91 1015 92 781 86 1038 87 1050 84 1032
141 0.56981208376053205 -0.38389498695264179 0.22105055592044601 1 1 1 1.1764010773220372 88 1024 91 1048 90 984 86 1128 90 1018 87 1108 84 1084
142 0.84824368917465476 -0.26599478708122248 0.1498526129393136 110 110 124 0.93260774779960498 88 1028 91 1050 90 988 86 1049 87 1011
143 0.3714010071228766 -0.018019990297904853 -0.10057222113806134 50 54 65 0.31313429548968125 88 1033 91 1020 92 842 90 989 86 1101
144 0.026329550678767327 0.041981213558462405 0.073283165087514035 90 95 107 0.17438869261841464 88 1036 91 1025 92 844 90 995 86 1106 87 1063
145 0.73724769196224971 0.089813345733902303 -0.033740657832115897 39 43 55 0.30751113843316868 88 1039 91 1059 92 871 90 997 86 1107 87 1026 84 1007
146 0.020664130100672806 0.21658244073199834 0.037790365207289595 69 73 83 0.91623769575969727 88 1044 91 995 92 849 90 968 86 1108 87 1097 84 1049 85 932 83 967 82 1013 80 1197 81 1199 79 1358 16 3579
147 0.022137082281850379 0.21520983114745973 0.041104289900771002 69 73 83 0.5054565749308918 88 1045 91 996 90 969 86 1109 84 1048 80 1198 81 1200
148 0.4023798036865438 0.21751110434054022 -0.087323165117387358 20 23 28 0.25724341756983587 88 1046 91 1032 87 1069 84 1052 85 916 83 939 82 978 80 1138
149 0.56751302168285567 1.2836656790223957 0.17767382897126135 12 13 17 0.38695714227930239 88 1060 91 1070 92 858 90 1007 86 1118 84 1025 85 899 83 861 82 906 80 937 81 967
150 0.60933695574845281 1.3279273606605759 0.17418234821412312 11 12 13 0.6931724682455066 88 1061 91 1071 92 880 90 1008 86 1123 87 1084 84 1064 85 902
151 0.56395383375950836 1.3596288835508425 0.10655778403276597 137 138 148 0.27287076112831848 88 1065 91 1072 90 1013 86 1125 87 1080
152 0.77824921519352841 -0.25842218104844972 0.15863775425402513 17 19 24 0.88471994367193618 88 1070 91 1049 92 866 90 1021 86 1095 87 1054 84 1038 85 873 83 802
153 0.95833183591781868 -0.1246989954389521 0.12852382501335144 20 19 24 0.44569198736914811 88 1074 91 1078 92 869 90 1024 86 1103
154 1.1358658467180249 -0.11342513654764771 0.15320357497821643 27 30 42 1.284479179995921 88 1077 91 1054 92 870 90 1025 86 1134 87 1062 84 1045 85 914
155 0.035812272986832067 0.082397934194737635 0.068796362688523238 29 32 42 0.45565015626541644 88 1078 91 1026 90 1027 86 1135 87 1094 84 1073 85 943 83 989 80 1191
156 0.35924354571666817 0.21536312107233474 -0.096572486324103979 50 52 64 0.26308300501010906 88 1083 91 1063 92 874 90 1029 87 1067 84 1051
157 -0.095576151003994345 0.29551121315383311 0.14209767309249713 28 31 38 0.8847084691995637 88 1085 91 1035 92 856 90 1003 86 1141 87 1101 84 1080 80 1199 16 3616
158 0.1229339752798371 0.26578239927259756 -0.015189409713032842 39 43 55 0.23372767089026858 88 1086 91 1031 92 877 87 1098
159 0.73559927617833332 -0.059933031795697839 -0.0018373949533156964 57 61 73 0.91986037797233067 88 1096 91 1089 92 886 90 1043 86 1132 87 1091 84 1070
160 -0.017607709923461501 0.046705111764301255 0.13317999802732552 79 84 96 0.43506113073586999 88 1098 91 1081 92 887 90 1045 86 1152 87 1113 84 1089 85 954
161 0.22354744074915497 0.0095816995687111883 -0.01457967913131139 74 78 89 1.0083669429852751 88 1099 91 1055 92 845 90 1026 86 1150 87 1110
162 0.8953257753908469 0.083121109633346679 0.092700706197388266 13 11 12 0.31923901501452717 88 1101 91 1094 92 888 90 1046 86 1153 87 1095 84 1075
163 -0.24461439881866845 0.11467623035784517 0.48720719824097414 2 2 2 0.63397130111648325 88 1102 91 1061 92 872 86 1154 87 1115 84 1105 85 960
164 0.51503254556852174 1.3302868213815366 0.23162451043121404 96 96 96 1.0619658247775938 88 1108 91 1084 92 893 90 1049 86 1159 87 1119 84 1095 85 948
165 0.13121503386542879 0.03719042650149465 -0.010661311352424568 46 50 59 0.94302367065467563 88 1119 91 1080 92 903 90 1067 86 1167 87 1126 84 1103 85 956
166 0.22613738875182263 0.090431748692862926 -0.053727033370379762 39 42 51 0.31154354080603908 88 1120 91 1093 92 904 90 1068 86 1168 87 1127
167 0.33800419510769286 0.070500953446359899 -0.088634418880342541 21 24 31 0.039608455903166258 88 1121 91 1083 87 1128
168 0.33803080327840795 0.070260179463805583 -0.087861351893867665 21 24 31 0.010977355262518307 88 1122 91 1082
169 -0.18809191185671026 0.13615425973596518 0.40246269880746455 113 115 127 1.5001250437612683 88 1123 91 1029 92 873 86 1169
170 0.42750555194162332 -0.42480921252267845 0.25078990901719778 1 1 1 1.4848269894478021 91 1043 92 863 86 1127 87 1107 84 1065 82 837
171 -0.096889562233889268 0.049149704755662965 0.20118145308837151 19 19 21 1.8555064816589937 88 1132 91 1092 90 1078 92 907 86 1180 87 1140
172 0.80339847254615271 0.14278554859938508 0.040689769815740712 84 90 104 1.9294871548311994 88 1143 92 913 90 1087 86 1181 87 1141 84 1112 85 961 83 993 82 1016
173 -0.20441940670186681 0.21063185853035449 0.40295050140407573 85 88 103 2.0951089737458148 88 1144 91 1100 92 911 90 1088 86 1184 87 1149 85 978 84 1125 83 1037 82 1100 80 1245
174 0.48640329366594126 -0.41265855061226731 0.22382896714065401 26 24 29 0.87501674049689593 88 16 92 4 90 11 86 37
175 0.47497717881921842 -0.37844610415611868 0.24453608256019924 42 31 23 0.085447302676022088 91 30 92 8 90 427
176 0.062967467734256682 -0.22734826383666265 0.13127845826374049 8 10 23 0.19787082726960883 88 41 92 21 90 40 86 88 87 78 84 536
177 0.15197611458778612 -0.3076529353208195 0.17883729645037363 24 28 42 0.17304641839242438 91 474 92 22 90 443
178 0.10753322623249964 -0.23043581375108182 0.14196825168469576 103 110 127 0.31662389252308604 88 496 92 24 90 42 86 565 87 526 84 539
179 0.31639544554898658 -0.24687813458491673 0.017468233538060818 92 103 121 0.05995166275753009 91 26 92 26 86 35
180 0.3010317278317336 -0.23415118044744018 0.018440198665028079 53 64 82 0.52021542604629489 88 502 92 27 90 55 86 96 87 38
181 0.30135277853766174 -0.23407419976613084 0.018551653357631398 53 64 82 0.15505481113169178 88 503 92 28 90 56
182 1.0398908042543882 -0.18010004387638115 0.12414652177810018 75 87 109 0.26816624476763201 88 100 92 53 90 165
183 -0.17616741863119528 -0.18613676560234374 0.18928041867262604 37 41 52 0.18474913154293113 88 493 92 61 86 557
184 -0.18155510085180471 -0.13763054291405311 0.17721084156561026 7 11 22 0.21977919637159812 88 536 92 65 90 97 86 605 87 520 84 554
185 0.030019858225912938 -0.11746257784725797 0.11187528439260988 64 72 83 0.2798272835619327 88 119 92 69 86 147 87 525 84 562 85 502
186 0.18975723746146303 -0.053177047251171089 -0.02171993497627292 85 91 107 0.13054320648000972 91 175 92 71 90 107 87 567
187 0.29905307957892302 -0.11676969365817888 -0.061006254013568559 78 85 101 0.21326599033837065 88 508 92 77 90 490 87 531
188 0.22851411490227044 -0.054639380223537259 -0.040759263385326414 83 87 99 0.56334521962494155 88 545 92 78 90 109 91 176 86 611
189 0.23511210258364376 -0.044721226304762413 -0.039480166217026963 18 22 34 0.30204122830390623 88 130 92 80 90 110 87 153 85 507 83 483
190 0.33526823476285161 -0.10986074187805603 -0.062182404571106326 72 79 95 0.20622012026267128 91 96 92 83 90 115 86 108 84 140 85 135 83 107
191 0.49901380943933416 0.022227738475209841 -0.10580042910904812 51 55 64 0.62858656929859213 88 218 91 569 92 88 90 203
192 0.49718360457789645 0.022660312098755214 -0.11058797144613908 51 55 64 0.57390247936731986 88 219 92 89 87 582
193 0.6298809474143573 -0.095196652085130534 -0.061117744111727906 21 24 39 0.26770577143222507 88 143 92 90 90 142
194 0.74654665517391927 -0.064567360537729185 -0.014289949936549778 71 79 93 0.17936022241025656 91 576 92 97 90 147 86 190 87 179
195 0.83301526472069232 -0.13299412947509867 0.07998044944568522 17 21 33 0.24534333633171776 88 152 91 134 92 107 90 146 86 196
196 0.85233502290518659 -0.094411243060648659 0.08393132382215171 16 18 29 0.2627699226428537 88 554 92 108 90 150
197 0.90528044980230471 -0.11902182014008197 0.07344812648098159 57 63 79 0.24371683426050281 88 159 92 109 90 155
198 0.99213471328565028 -0.09910932724597879 0.12428773669370616 27 32 47 0.2550891846968702 88 167 92 115 87 201
199 1.0173972495528862 -0.14128012994381259 0.12075456323370079 70 78 99 0.29217815478024711 91 546 92 117 90 523 86 637
200 1.0507977012154508 -0.096417456634172477 0.094379987217312666 16 23 40 0.29100627350034919 88 562 91 550 92 118 90 531 86 643 87 605 84 636 85 176
201 1.0239088741326738 -0.016016245978431792 0.059647390396724842 44 50 64 0.31163736807044473 91 227 92 120 90 222
202 1.1208639575456116 -0.10498077194833058 0.1133631873601145 22 24 39 0.18146345008190909 91 160 92 121 90 176 86 218
203 1.071395239703854 -0.04983670033255938 0.077706215460254885 59 62 79 0.16179232681797312 91 224 92 124 90 226 88 181
204 -0.16741666861768975 0.05322934685216113 0.22322672275357189 93 93 91 0.16425192941738603 91 591 92 133
205 -0.0027678614615739006 0.024705338426089463 0.09651544432830908 31 39 51 0.43567789176229477 88 572 92 134 87 613 84 205 85 537 83 481
206 -0.0084027069179132413 0.073809517547788778 0.095479098490955788 86 92 109 0.19970693994774019 88 189 92 135 90 564 84 645
207 0.39944299141370043 0.12463756698334151 -0.078011685399153041 40 43 50 0.15947078636076489 88 216 92 152 90 253
208 0.58641810950907913 0.13720657303456463 -0.082977863051851078 8 12 21 0.33421294577545207 91 268 92 162 84 330 85 284 82 273
209 0.58596709981583217 0.13677865956135771 -0.083858606164637819 8 12 21 0.18787771625109687 91 267 92 163 86 330 84 331
210 0.77039511673331729 0.054222825838942473 -0.0074449006541547347 78 84 98 0.13313481036984656 88 236 92 170 90 209
211 0.69757909015097597 0.10482868777552408 -0.053639102159275157 27 33 47 0.19605797163247923 91 272 92 172 90 267 86 264
212 1.0016747893059652 -0.0028381854786267702 0.074951416775169949 17 21 33 0.24768672388640328 88 247 92 184 90 214 87 271 84 277
213 -0.049412887387251712 0.1835437765341629 0.11192641561792724 60 64 76 0.22082552950685663 91 303 92 196 90 566 86 682
214 0.086914304292092875 0.15061440701455292 0.0074317391307208713 30 34 46 0.38089348506639414 91 247 92 197 90 239 88 273 87 641
216 0.37221435454834118 0.15380240752955804 -0.096113979069475677 48 52 61 0.58823648000168915 91 595 92 209 90 254 86 326
217 0.42463561538126027 0.21840958030690161 -0.091728970759465081 35 38 45 0.26366467071051786 91 325 92 213 90 261
218 0.55893369176181518 0.19465704855607374 -0.08717023914820235 13 17 28 0.16631561502051448 91 332 92 216 84 396 87 311
219 0.61823175883101811 0.14477207155864372 -0.084501254962539685 48 52 64 0.45330028015730017 91 273 92 218 90 266 84 332 85 292
220 -0.29081518848996357 0.23779967732903429 0.54280222557795565 85 86 85 0.37101367466055662 88 322 92 235 90 289 86 365 87 338 84 410
221 -0.28712519120138807 0.28167636167030824 0.55867909807762062 105 106 112 0.48405849840733495 88 324 92 236 90 329 86 706 87 668 84 697 85 582 82 885
222 -0.14946195163111858 0.24506509495705034 0.20819553701279983 87 90 105 0.29628938965382906 91 311 92 238 90 296 88 326 87 346
223 0.86278217284336223 0.27489089865105243 0.05839241614756277 46 50 59 0.21792914806943794 88 365 91 351 92 263 90 325 86 419 87 374
224 0.65676479341433491 0.41675819494780464 -0.044579486293117823 33 34 39 0.36857483957707621 88 383 92 280 90 342
225 0.73465632122588487 0.39593168052421612 0.0070591039959365942 16 19 26 0.35995527558893109 88 384 92 281 90 341 86 443 87 404 84 431
226 1.0064731761177994 0.5946895314838293 0.50104225313340012 112 111 109 0.38455150652021902 88 669 92 304 90 638
228 0.17759403648005564 0.76273133510316726 0.40655652021422684 19 0 2 0.24548075637634881 91 403 92 315
229 0.086449049231277331 0.80956725354773762 0.45369819159178293 75 46 52 0.31432561679750881 88 676 92 316 90 643 91 675 86 750
230 0.65599768678764159 0.73005559452983515 0.5412770540467664 163 161 162 0.45847795062241287 88 423 92 323 86 754
231 0.59776380683679242 1.2226328452722626 0.17478404986003113 90 94 97 1.3406291839437476 91 440 92 353 87 732 85 645 83 601
232 0.63716592198083377 1.1933252023775658 0.10476081625941461 92 97 104 0.18022609507342441 91 444 92 354 90 393 84 731
233 0.54690616967021544 1.3675121215656392 0.10309825681473114 44 52 60 0.37572145892884068 88 465 92 371 90 412
234 -0.020659051944698928 -0.36304679415446484 0.25764076707034533 53 61 83 0.28034826398220974 88 473 92 374 90 435
235 0.17083310918851866 -0.3237750917740565 0.18499977229695078 7 13 31 0.12535269265540003 88 478 92 376 90 442 86 543
236 0.05833801796223495 -0.2727646131867647 0.13098347983420008 11 15 32 0.28413108516356528 88 39 91 13 92 390 90 438 86 542 87 503 84 533
237 -0.041137464876159963 -0.18266528746237673 0.1073037804617564 63 71 90 1.0059122197416637 91 747 92 394 90 478
238 0.18175188213831914 -0.19014090463827241 0.044492675100553714 109 118 136 0.10490298519089063 88 498 92 398 87 528 84 563
239 0.25608143708310105 -0.23734682410444799 0.038501478519887639 44 55 73 0.18555082535534961 91 24 92 400 90 447 86 569 87 507 84 756 85 671 83 645
240 0.31233260654204964 -0.21212465968599428 -0.0036641101056268111 39 50 68 0.40073257944783841 88 504 92 403 90 57 86 807 87 777 84 757 85 675 82 513
241 0.19992560165941073 -0.17037387762904019 0.015875008715650729 27 35 54 0.31127281705354265 88 501 92 405 90 484 86 805 87 772 84 763 83 799 85 795 82 845 80 975
242 0.2574750043189854 -0.13108585115984242 -0.037014306809068309 20 25 43 0.17045862723796623 91 755 92 406 90 486 86 579
243 0.37648333513540466 -0.14609781168646294 -0.053673686753198474 70 79 96 0.38174414204909729 91 756 92 409 90 721
244 0.59669404024415784 -0.14350500123073587 -0.055632104520056749 19 25 39 0.21847658835922462 91 526 92 413 90 135 88 89
245 0.75992778935154892 -0.29352725583732397 0.19188423101246641 38 42 59 0.22462193453178106 91 51 92 414 90 467
246 0.79570838137167033 -0.17433106680889757 0.1030388317081484 108 116 131 0.075833097463496049 91 768 92 415 90 513
247 0.89848223761909518 -0.18093490165872647 0.10464244097535838 18 24 40 0.36954677008025055 91 138 92 421 90 151
248 0.89364257032709415 -0.15354727053036762 0.10399369791558191 22 28 44 0.25987200766862023 91 140 92 423 90 153 88 97 87 129
249 -0.23732491167455538 -0.17505720611558404 0.19584775087612913 44 47 56 0.18442944855099563 91 62 92 425 90 476
250 -0.056514439207481927 -0.16767109107799824 0.14969705682199128 58 70 90 0.17586325638742711 91 505 92 431 90 479 88 733
251 0.13980536690631384 -0.13913771604076905 0.045850124215757182 109 115 136 0.38796182369774423 91 508 92 433 90 717 86 953 88 893 87 912 84 907 85 872 83 880
252 0.26705009524375789 -0.112813035021568 -0.047650210507567708 71 78 94 0.15270082471325552 91 516 92 437 90 113
253 0.27333827297848501 -0.098936442532276264 -0.047295615490779139 20 26 40 0.2831884854481399 88 128 91 91 92 438 90 488 86 154 87 533 84 139 85 134
254 0.34187271920998852 -0.03538609548338123 -0.076139150120009449 24 28 42 0.22448467634383279 91 561 92 440 86 619 84 608 85 514
255 0.49371921314942546 -0.066968377683651575 -0.087026169358174615 7 14 22 0.3230775022917623 88 767 91 527 92 441 90 502 86 837 87 799 84 775 85 700 83 677 82 557 80 608 81 153
257 0.98682285455397534 -0.1407928427263174 0.16347955384852406 16 20 32 0.15149018266725769 91 774 92 453 90 522
258 1.0430754394097621 -0.11921714762656602 0.081784217394704761 29 37 56 0.30370812307226569 91 548 92 455 90 528
259 1.0399085826400216 -0.035848830300598933 0.063691576349463097 43 47 59 0.24763705165486649 91 585 92 459 90 559 86 647
260 1.1414250418601501 -0.12018284842832036 0.13333583083141973 19 25 40 0.35347054781691628 88 183 92 462 90 175
261 0.06229461663442773 0.0076649176886878778 0.051858534826167674 54 60 76 0.23688981993800828 88 573 92 465 90 540 87 565 84 602
262 0.12832338055355808 0.024414259563070584 -0.010141476013607403 20 20 29 0.13660762290998091 91 786 92 467 90 743 88 793 86 986 88 921 84 792
263 0.28008354366372967 0.011543430473003935 -0.075603537332508158 30 36 47 0.25752806831041841 88 546 91 564 92 470 87 572 85 139
264 0.28024061241202292 0.011231943636875824 -0.075750861142202114 30 36 47 0.27739518060746415 88 547 92 471 87 573
265 0.36481064250122075 0.019841565090107427 -0.098467123842019902 14 18 27 0.19551068083329795 91 790 92 473 90 748
266 0.41531868446066589 0.067374100158742359 -0.086207636587722986 15 18 27 0.27158172347386345 88 583 92 474 90 547 86 662 87 234 84 652 85 549 83 213
267 0.53634578175055869 0.030593250002270755 -0.097352518276246885 14 18 27 0.30780203160551534 91 199 92 476 90 548 86 248 87 583
269 0.81824622954856074 0.10783035701886078 0.029617167331218108 36 44 57 0.065832314788873525 88 592 92 481 90 269
270 0.9605708795636555 0.077673874533551818 0.085718295855744558 24 28 39 0.22732580354747955 88 594 92 483 86 869
271 0.16916098361836848 0.22011502278063941 -0.032267941890754187 9 12 19 0.099509181012351455 88 814 92 488 86 878 84 835
272 0.37919396395837779 0.24679195958239203 -0.076754691154320182 9 13 16 0.44727886923058441 88 303 92 492 90 313 86 880
273 -0.12291380819113441 0.32924805050426575 0.18159332268050224 66 69 78 0.79471561907499078 88 636 91 644 92 506
274 -0.031821372458844505 0.23130682589408913 0.10411123463660574 35 39 51 0.33172422758106029 91 618 92 508 90 780
275 0.59051862720144843 0.35108966009239934 -0.064465402770897642 32 35 40 0.12923037129406895 88 840 92 512 87 684 84 425
276 0.85659373998267085 0.28635090013502756 0.061992413445399075 13 17 29 0.30238787969768877 88 650 91 828 92 514 90 612 86 723 87 379 84 432
277 0.93377688278729021 0.39414672166703613 0.13138709880473839 37 41 50 0.50456621455218043 88 387 92 523 90 345
278 1.0728999737826013 0.50907130466819694 0.45855452652253303 88 87 88 0.12655952299018736 88 397 91 665 92 526 90 632
279 0.031255357838416153 0.65787051250686346 0.61330705977526301 149 149 149 1.4853928013078495 88 855 91 668 92 529 90 637 86 913 87 706 84 866
280 0.95747702007651447 0.61896110894653178 0.40276417397235342 110 109 107 0.15674253834686305 91 664 92 533
281 0.95747702007651447 0.61896110894653178 0.40276417397235342 110 109 107 0.15674253834686305 91 663 92 534
282 1.0238995487283513 0.58871017474310539 0.50313550476725377 78 76 73 0.15461356921705058 91 667 92 535 90 358
283 0.57242105351011108 1.3692872354818226 0.10525035012114389 195 203 211 0.27493993644825643 88 705 91 707 92 560 90 679 86 776 87 743 84 741
284 0.039673376093037976 -0.3419742249820783 0.24003225477019494 32 43 69 1.1562501257772941 88 716 91 466 92 561 90 696 86 944 85 782
285 0.5243041781062916 -0.39131129299318168 0.25087049538529471 30 32 47 1.3386144033508456 88 725 92 567 90 687 86 790 87 764 84 542
286 0.54000717312717827 -0.37937016646270072 0.26071609059559908 155 155 155 0.63521182568085555 88 484 92 568 90 688 86 794
287 0.64459828169312794 -0.341853386765687 0.22142199529503551 154 155 159 0.058089127891370551 88 728 91 738 92 569
288 -0.22464205361099066 -0.28583658784466626 0.22253165060412353 53 61 80 0.12861610301767901 91 741 92 571
289 -0.067061488370122671 -0.20324417917793566 0.18882563603072519 22 28 38 0.22233630960128231 88 732 91 745 92 575 90 715 87 904
290 0.258895246801782 -0.18693150243919018 -0.010024147443790099 48 57 77 0.12128587874919973 91 511 92 582 90 450
291 0.50627571526913695 -0.21049221669970833 -0.023402150456343765 105 112 130 0.45322951286913671 91 737 92 587 90 708 88 895 86 956 87 917 85 680
292 0.18176437161644318 -0.069428791344200186 -0.011917282657619405 40 47 62 0.13265625301503486 88 757 92 600 87 932
293 0.072664033202272021 -0.027719050156894409 0.037633772028426909 33 39 55 0.16488671159802545 91 784 92 601 90 739
294 0.46981120847654556 -0.0755525329058859 -0.097655927292771588 16 20 30 0.27784612345889553 88 766 92 605 90 498 86 620 84 583 85 519
295 0.87756322864970027 -0.1116343031544976 0.070916626471044186 13 13 23 0.25194527034243158 88 912 91 771 92 610 90 731 90 864 86 975 87 939 84 930
296 0.90501932513767025 -0.10567604882372292 0.086859663345266097 12 18 30 0.21726144500893479 88 558 92 611 90 526 86 200 87 190
297 0.90501932513767025 -0.10567604882372292 0.086859663345266097 12 18 30 0.21726144500893474 88 559 92 612 90 525 87 191 86 199
298 0.87229471789794566 -0.018057247337288945 0.07229702931231019 9 12 20 0.61299986509528348 91 794 92 613 90 881 86 994 87 814 84 931
299 -0.21292898866528934 0.015942321195637515 0.29835438562611882 2 2 2 1.1739707689334431 88 789 92 621 90 737
300 0.11018793520785805 0.085074415014401147 -0.00056001628233093292 36 41 53 0.29719445105618902 91 805 92 624 90 742 87 945
301 0.26793054952391882 0.016706706311115399 -0.062724032458723725 45 53 64 0.1154507661047537 91 788 92 627 90 745
302 1.0523069064890105 0.022091077958716621 0.060771232385352425 7 10 15 0.19401434659192707 88 806 92 633 90 759 86 871 87 833
303 1.0523069064890105 0.022091077958716621 0.060771232385352425 7 10 15 0.19401434659192707 88 807 92 634 90 758 86 870 87 834
304 -0.0063125131297969012 0.16202644678834294 0.063573621731654678 62 65 80 0.44411505513657135 91 817 92 640 90 887
305 0.39605133425535988 0.24779480789121452 -0.078694453419170141 44 47 54 0.16203662793270421 91 934 92 648 90 906 86 999 88 932 87 854
306 1.0941966065220712 0.10429621818550019 0.12601519901171157 127 126 125 0.19740119522800295 88 627 92 656 86 703
307 -0.35050144196588223 0.36240725689962738 0.54733481295269826 2 2 2 0.38640226633833635 88 847 92 662 86 909
308 0.087445708263161975 0.84882286786371552 0.47800431274922273 19 7 10 0.49341873749989151 91 850 92 671 86 1081
309 0.67658037009846717 1.0564392307089288 0.46060403496992186 52 49 47 1.0210531333124944 91 860 92 681 90 386 92 340
310 0.056633854160113711 1.4028935274829635 0.55939412400995348 51 49 47 0.40813097286051275 91 698 92 687 90 817
311 0.53627945923006271 1.29223069680292 0.1422287037864288 82 80 82 0.57566733975471962 88 694 91 700 92 688 90 814 86 933 87 479 85 416
312 0.60826931741998969 1.3965332147162992 0.13509480460955439 133 138 142 0.3985558346751214 88 707 92 697 90 821 86 779 87 746 84 746 85 650 83 614 82 475
313 0.6056854738620735 1.394413483218315 0.1242756398773274 133 138 142 0.33114430958630409 88 708 92 698 90 822
314 -0.012218790851927591 -0.24613860883825764 0.16338001079366846 80 92 119 0.19007713712520649 91 890 92 708 90 939 88 1025 86 1092
315 0.70223777106383389 -0.23442244845547225 0.094223378107386013 109 120 137 0.30909875932206859 88 747 92 714 86 125 87 547
316 0.82266022509789027 -0.24535801137416632 0.13423988089223074 21 26 38 0.42380828741537879 91 884 92 715 90 846 88 749 86 815 87 780 85 683
317 1.103538791804006 -0.17392856191846448 0.18791254981344049 45 51 75 0.63478499809515143 91 900 92 718 90 870 88 752
318 0.042474829058843033 -0.089598941970069318 0.10351202332470685 93 99 115 0.091079873616705068 88 900 92 722 90 854
319 0.99690508625807184 -0.11521903442976647 0.12978103887832634 60 66 82 0.1057030802862839 91 899 92 729 90 869
320 -0.27125082035098569 -0.069518839235246294 0.27733202573435867 1 1 1 0.42840608345246767 88 897 92 732 86 961 84 920
321 -0.19613784614386215 0.045973358293422584 0.2572782114318809 1 1 1 1.099387096078436 88 916 92 735 90 763 91 917
322 0.046545361413536102 -0.0033567600399307673 0.059540154762785763 87 93 107 0.42914158701682653 88 917 91 907 92 736 90 874
323 0.071337173325187464 0.026759024830582373 0.030913576343257754 66 72 88 0.42987956661948629 88 919 91 804 92 737 90 875 86 985 87 1021 84 992
324 0.13934833795417584 0.069639283323945478 -0.017514082894092925 31 35 45 0.35813585397895914 91 806 92 738 90 876 86 987 87 822
325 0.42404308428747051 0.042180085387908212 -0.083523941921391787 8 11 20 0.16815510960861332 91 911 92 740 90 877 86 989 87 948 84 926 85 824 83 816 82 858 80 994 81 859
326 0.42365623176318234 0.042147730867311939 -0.084829535362799788 8 11 20 0.14459634541602981 91 910 92 741 90 878 86 990 87 949 84 927
327 0.44931463474527944 0.11558259095552272 -0.090795598974406366 15 20 22 0.19117604586541134 88 923 92 742 90 892 86 991 87 950 84 936
328 0.88477701337480008 0.036666265804192938 0.077927731957993907 14 13 18 0.28143387705350265 88 804 92 744 90 883 86 996 87 828 84 822 85 725
329 -0.13509996151798662 0.13231981822082459 0.23154772640598734 22 22 31 1.402156281604755 88 1081 92 747 90 959 86 1155 87 1116 84 1104
330 0.59302046519773255 0.24939004878082116 -0.075137189102324545 47 51 62 0.38874860734709277 88 936 91 936 92 750 90 907 87 963 84 839 82 631 80 359
331 0.71344397177279806 0.19078759514989599 -0.052020475933654997 21 28 38 0.26454189823586671 91 937 92 754 90 898 88 939 86 1004 87 858
332 1.0702511252405824 0.1424648090511845 0.13119720449864389 116 114 111 0.59545526569260321 88 824 91 926 92 757 86 889 87 859
333 0.85356053514750374 0.3145254634531639 0.059180351215303184 49 53 65 0.28254361089483737 88 842 92 761 90 786 86 906 87 693 84 433
334 -0.33281065361490114 0.29986065323446404 0.55870650769777086 79 78 85 0.53820316240896338 88 1011 92 762 90 911 86 1078
335 -0.26804067421746869 0.43566055978216406 0.55371823104152273 1 1 1 0.69849070168451477 88 850 92 763 90 794 86 1017 87 873 84 861 85 757 83 751
336 0.68116187447257737 0.74246461008218567 0.55624968930074414 2 2 2 1.3286801770254804 88 952 92 768 86 1021 90 646 87 884
337 0.6615384321961415 0.88560945629997945 0.55485269084506872 3 3 3 1.3275739218393545 88 954 92 770 90 806 86 1084
338 -0.2516564678067913 -0.37272728354292073 0.31394546531174372 151 154 160 0.63783834532175676 88 881 92 777 90 691 86 940 84 978 85 779 83 868
339 0.25649874759506464 -0.40175398891231351 0.27682884875285052 163 165 168 0.38677290547743942 88 968 91 970 92 779 86 1090 87 1048 84 979
340 0.27815465574699272 -0.31685489389559351 0.13347095519383687 101 109 127 0.4870667339419697 88 971 91 971 92 780 86 1037 87 1049 84 1031
341 0.50431010068476079 -0.4065556128390786 0.26953359062211224 179 178 166 0.15714272699803056 91 972 92 783 86 1040 88 973 87 1002 84 980
342 0.77429207643956954 -0.29893383348424463 0.16982683498337078 96 98 103 0.86784560193378713 88 975 91 974 92 785 90 946 86 1042 87 1003 84 901 85 799 83 650 82 519 16 3324 26 2266
343 -0.0059845099321716028 -0.30106490575461098 0.17401151308330845 29 37 56 1.4164982863955278 88 1021 92 789 86 1089 87 1047 83 873
344 -0.02585648851195857 -0.25778146159413906 0.12931544297940809 21 29 42 0.51254841976966659 91 975 92 790
345 0.90507382374649936 -0.21649791217194961 0.14493438757733504 34 40 55 0.54354450598748916 91 1019 92 793 90 848
346 -0.056835661210830092 0.034998313746963772 0.13204818667097137 13 14 20 0.48805831313801723 88 997 91 1024 92 806 90 994 86 1057 87 1020
347 -0.18278681344124117 0.067719692958234892 0.30387523529672422 3 3 2 1.4079936223651932 91 988 92 811 90 958 88 1042
348 0.65869025991517927 0.19533854582341059 -0.067721851923223969 24 28 37 0.072452432075041207 88 937 92 814 90 897 86 1003 87 966 84 951
349 0.89182073622230396 0.12060645489314314 0.092096541467169335 7 10 16 0.45275391828059552 88 1005 92 816 90 966 86 1071 87 1037
350 0.78163220524438703 0.34188566343915588 0.017351906962881414 21 25 34 0.27567242596509528 88 1010 92 819 90 971 86 1075 87 983 84 958
351 1.0319320752171679 0.23250941220448201 0.30236890304736663 0 0 0 1.0980785346735156 91 998 92 821 90 910
352 1.0613656788749923 0.53346352252793916 0.49226433977236428 3 3 3 0.55032170112249712 91 951 92 822 90 914
353 0.45900714846983004 1.3639016550750098 0.2013718962568524 101 101 101 0.17363870254892344 91 1009 92 829 90 979 88 1015 86 1032 87 892 84 881
354 0.44949388962205161 1.3883988907259168 0.1852191713695848 5 5 5 0.19206928999648074 91 1011 92 831 90 925
355 0.015955663792813241 -0.40615566252081037 0.31323667158923763 125 126 137 1.0057670663489793 91 1014 92 835 84 1083
356 0.68998636308489303 -0.15001952120170528 -0.0062342655647590339 53 64 82 0.5180212696467138 88 983 92 838 90 952 86 1048 87 920 84 918 85 702
357 0.8349951004180598 -0.15940760895492026 0.091018240544739254 17 18 25 0.47657457580315093 91 1018 92 839 90 990 88 1030 86 1096 87 1057 84 1039 85 879 83 885
358 1.1555835428900341 -0.14983612494228885 0.14417170628377743 100 103 112 1.3773897480652149 88 1035 92 841 90 992 86 1105 84 1069 83 901
359 1.0730405943421968 -0.11472856380224908 0.10585800156802275 46 53 75 0.079259843489735013 88 994 92 843 90 991
360 0.68808952382384336 0.080958479836862066 -0.0633010222354147 72 82 94 0.19049171707548623 91 1027 92 846 90 957 86 1062
361 0.94041367518267716 0.091277885519044116 0.093615211511986984 43 47 61 0.67667761382720426 91 1028 92 847 90 999 88 1080 86 1138
362 0.86474015875991506 0.13498480215850384 0.079097911752409378 51 57 73 0.59604535095151479 88 1006 92 850 86 1006 90 774 87 970 84 825
363 -0.27585125252939557 0.1930816229398532 0.5126463563683693 22 25 28 0.6972003507389789 88 1052 92 852 90 1001 86 1139 87 1096 84 1077 85 933
364 -0.31476287606119868 0.2654248854453673 0.51810543890294714 1 1 1 0.2489788960012882 88 1053 92 853 90 1002
365 -0.16199144659453718 0.30821722899016396 0.2307035767115477 25 29 38 0.22684765157143169 91 1033 92 855 90 1034 88 1084 86 1140 87 1102 84 1079
366 0.81019202337751306 0.33594342772465652 0.025314333896952451 44 48 59 0.17539108962289651 88 1009 92 857 90 972 86 1076 87 985
367 0.61899694721545417 1.2468152677910924 0.13892922309798225 13 17 20 0.74979638259130521 91 1040 92 859 90 1006 87 1081 84 1026 85 901 83 920 82 954
368 0.64890252084959543 1.2660733670916022 0.13133480138592954 18 17 19 0.2687872024760744 88 1062 92 860 90 1010 86 1121 87 1082
369 0.64890252084959543 1.2660733670916022 0.13133480138592954 18 17 19 0.2687872024760744 88 1063 92 861 90 1011 86 1122 87 1083
370 0.75088353693675169 -0.19543915893399685 0.094836438903468878 127 137 155 0.64433851796422381 91 1075 92 867 90 1020 88 1029
371 0.93793958144387657 -0.23333103917789341 0.14922967592088712 124 129 135 1.2927983764312483 88 1072 91 1051 92 868 90 1022 86 1097 87 1056 84 987
372 0.36100983603309555 0.2149023629094394 -0.09018852952593423 43 48 60 0.37298105067211829 88 1082 92 875 90 1028 86 1137 87 1066 84 1050 82 937 80 1084 81 1039
373 -0.29320465273377139 0.340212696297714 0.50084309002703387 14 14 16 0.23970893177877015 88 1089 92 878 90 1033
374 0.60343528046259387 1.0000776726681475 0.41229194852192874 16 15 20 0.63089619990529866 91 1065 92 879 90 1004 86 1085
375 0.50155427716645218 1.3730997652808805 0.12679013513356127 8 8 8 1.3197769520871956 88 1109 91 1041 92 881 90 1050 84 1096 85 949
376 0.80466781847107016 -0.217664540669086 0.11830006777127741 47 47 56 0.48663872322612695 88 1095 91 1076 92 885 90 1042 86 1149
377 0.92728481905922433 0.23655452499580484 0.12736179523605454 14 14 12 0.78932626465827205 88 1087 91 1096 92 890 86 1112 87 1073 84 1056 85 894
378 0.56922160561804458 1.3999747701884424 0.10617806045972886 12 10 12 2.1857772612501334 91 1085 92 894 90 1037 84 1029 85 777 83 613
379 0.10590380770245345 -0.28320870677403043 0.15160975306737287 37 39 51 0.14902149516071808 91 1087 92 897 90 1061
380 0.43405584991758694 -0.077237361233301632 -0.094103307605913872 13 15 22 0.16238395817237036 91 1088 92 898 90 1065
381 0.88360492121552037 -0.067393795823486952 0.091306361186164392 20 20 28 0.98776580160454386 88 1097 92 899 90 1044 86 1133 85 913 84 1043 83 899
382 0.9927821038004806 -0.052589927194553437 0.1154376730554528 52 59 77 0.31003870613744045 91 1090 92 900 90 1070
383 0.5724927414488632 0.24991786013874318 -0.095985234179063308 49 53 64 1.2084023674331934 91 1095 92 905 90 1071 86 1170 87 1117 84 1090
384 0.020490280503838332 1.1907694980740191 0.44505524291065013 39 45 59 1.0762954358607262 88 1140 92 909 90 1079 86 1182
385 0.61926823530967701 -0.1396644462566641 0.0078546039320848693 33 35 47 1.416622371196826 88 1129 91 1103 92 910 90 1077 86 1162 87 1122 84 1086
386 0.12272552730155922 -0.11277732725578873 0.031773894346697085 84 91 109 0.29417709140456377 91 1105 92 912 90 1086
387 1.2187280521836237 0.2267692834608199 0.3305332493122296 0 0 0 1.0795441225029616 88 1154 92 919 86 1191
388 0.47811273522059394 -0.41296991469852384 0.18682164274141497 90 90 85 0.85060293808032872 88 482 92 3 86 550 84 2
389 -0.074537690338845997 -0.2819522674913636 0.21463717040138611 24 28 39 0.24364828462999619 91 501 92 17 90 31 86 556 87 500 84 529 83 436
390 0.02385529579205764 -0.22555120991717101 0.11767222877943381 55 59 71 0.60418638304763383 88 495 92 20 90 39 86 562 87 522 84 535 85 668 83 635 82 708
391 0.22442411081652472 -0.22618626926269716 0.047500826739748953 93 100 118 0.049387197372812865 88 53 90 50 84 55
392 0.55492367256136954 -0.18368041155418621 -0.022446182306962686 87 92 112 0.15991657550608387 88 79 90 75 86 120
393 -0.21340956983803155 -0.17266156279664444 0.1903640271261435 39 42 49 0.2351674289951331 88 104 90 89 86 554
394 -0.14900734252553047 -0.1855955283941513 0.18616328952634073 45 49 60 0.1363587022787297 92 63 90 96 86 558
395 -0.11711414834146544 -0.21271706982902552 0.2031131970697819 18 22 34 0.19817554413855598 91 503 90 100 86 67 87 58 84 93 85 60 83 33 82 41 80 26
396 -0.030351882348506484 -0.18165640593339474 0.12332985713650982 26 31 50 0.54211290124957301 88 494 90 103 86 79 84 560
397 0.19794546723912307 -0.042776267537487006 -0.025061052553584401 32 36 48 0.52416896892697329 92 434 90 108 84 210 87 151
398 0.26669092203968747 -0.11311236766383118 -0.049824380154394957 77 81 90 0.22076986787986619 92 436 90 112 87 530 84 565 83 471
399 0.41569301699691075 -0.084328427294938918 -0.10468804644844287 21 23 30 0.16824379868052372 88 134 90 122 86 157
400 0.46887244093569791 -0.14562430042608263 -0.054603789332285352 79 86 97 0.39120196643817651 88 83 90 123 86 582 87 539 84 578 85 487 83 674 82 549
401 0.6206193478400992 -0.096370953608767546 -0.054020964423999146 52 57 69 0.34758978843311655 88 142 90 141 86 181 87 119
403 0.92905677951947052 -0.077614295403365036 0.089376421108506909 62 65 74 0.31091797815830935 92 452 90 160 86 638 87 595 84 807 85 532
404 1.0344112056158692 -0.13966286261365027 0.11456123475740052 39 46 65 0.120080094320763 88 174 90 172 86 207
405 1.0452526991502997 -0.0536706668655485 0.075837133448888733 10 12 24 0.14199387438259881 88 178 90 174 87 206 84 276
406 -0.21519107456491612 -0.039188192026921809 0.2823184035063403 29 28 32 0.66452485603523925 88 566 92 129 90 180
407 0.31797487064267826 0.019418334142996263 -0.073684173448831575 60 64 73 0.18316335317799159 88 207 90 192 86 236 84 219
408 0.24706412200156039 0.087503123281205325 -0.058040093400641965 14 19 25 0.18910477006082424 92 144 90 193 86 657
409 0.43187612913059126 0.025425171890177622 -0.094034363414708513 43 48 54 0.074992290727855529 91 192 90 197 86 663
410 0.40190530044994943 0.052159614322021597 -0.090921805166646247 48 52 61 0.19418093936441061 91 568 90 199 86 661 84 617
411 0.4470277961182223 0.094850667099765473 -0.10213403507570654 21 24 32 0.4353949907539939 88 214 90 202 86 244 87 237
412 0.55586190782150724 0.0077326536292048054 -0.096622676895733256 23 27 36 0.12784426474221697 88 141 90 204 86 176
413 0.8625502977050622 0.025842496561653772 0.065685357034832859 83 86 95 0.21773524708598893 88 239 90 210 86 267 87 264 84 351
414 0.89749804095657948 -0.04492830706607101 0.072169199781332322 29 30 35 0.13717793377258439 88 169 90 212 86 202
415 1.0098625146464204 -0.039113597669233335 0.080430530471023387 53 61 72 0.092547582986190174 91 221 90 219 86 640 87 608 84 275
416 1.0095307555099895 -0.038995496103140626 0.080033665809221471 53 61 72 0.125171327695415 88 564 90 220 86 639 87 607 84 274
417 -0.1540314213736762 0.16457005069119121 0.23237869949542897 73 72 86 0.5019838439814015 88 603 90 230 86 680 87 638 85 728 83 730 80 999 81 1026 77 1208 16 3394
418 0.11120634901482448 0.1237274982252846 -0.0056989985924943143 31 35 46 0.44267516440721749 91 246 90 237 87 618 84 648 82 762 81 652
419 0.084181116181394844 0.17524222311927951 0.0067894580739522314 27 31 40 0.21703164801818831 88 272 90 240 84 647
420 0.244898182285017 0.11550762440859506 -0.061875481952619327 14 18 21 0.32215436838004846 92 146 90 244 86 234 87 229 84 309 83 519 82 600 80 632 81 247 79 727 77 222 16 2539
421 0.34394965337492645 0.19940256710363791 -0.0806287812910291 47 50 59 0.32665603730762932 88 300 90 251 87 300
422 0.34996016270180641 0.21883235102455992 -0.096200659681597245 60 62 73 0.085677239800944729 88 302 90 252 86 324
423 0.43473334484546611 0.16498320413228068 -0.10328539735494152 24 26 38 0.1847627764823204 88 618 90 256 86 690
424 0.57612357763615862 0.11116487586707559 -0.092753280404335003 19 22 29 0.11543248076199943 91 265 90 264 86 256
425 0.85530232382705906 0.11401388954706523 0.060528261138503459 67 71 84 0.048344117232171559 88 625 91 287 90 270
426 0.95858118353404353 0.093712795526398204 0.07923382246521557 41 45 56 0.4384272223059783 88 246 90 280 84 358 85 309 83 253
427 0.89111285251067407 0.18281286830071941 0.099587821447390534 20 21 25 0.14720771709652972 91 345 90 282 87 329 84 408
428 -0.3139991855500267 0.1682618693269527 0.5518040802389188 96 96 95 0.33367168188785812 92 231 90 287 86 705 85 242
429 -0.3136229575085856 0.16823939098646598 0.55313155883259024 96 96 95 0.37645096680598034 88 630 90 288 86 704 85 243
430 -0.29016018610125921 0.23536034059932448 0.55283424555239991 74 74 73 0.22115628878386662 88 321 90 290 86 366 87 337
431 0.10453551814304721 0.25272284398961709 -0.0078592628539621012 44 47 54 0.28971083968627442 88 332 91 315 90 307 84 385
432 0.27839100129600536 0.3000586435079543 -0.068815489096641466 47 50 59 0.46148624794962839 88 342 90 311 84 393 83 320 82 360 81 300 16 2020
433 0.48861314550556523 0.30442973971631482 -0.081800388589299181 31 32 36 0.17119611715746877 92 251 90 315 86 400
434 0.60218562015662946 0.23569939036327625 -0.07875043925270378 23 26 34 0.3707377963927595 91 627 90 318 87 654 84 398 85 598
435 -0.28630731245160113 0.28128570434462707 0.56089749410569456 95 94 98 0.53766067709564558 88 323 90 330 87 667 84 698 85 583 82 884
436 -0.30155048019844816 0.37727353387590257 0.58569771159543449 106 107 104 0.33923370312341722 88 371 90 333 87 388 84 437
437 -0.30155048019844816 0.37727353387590257 0.58569771159543449 106 107 104 0.33923370312341722 88 370 90 334 87 387 84 436
438 -0.19366689367265877 0.42199133062602368 0.32662022602462282 43 47 56 0.13922120336250324 88 656 90 336 86 728
439 0.77802105092190665 0.40916995540324586 0.026880655356060601 35 36 41 0.21661897106196812 88 385 90 343 86 445
440 0.13792823199578877 0.78058741164330292 0.5013320512352859 21 2 4 2.4672107284837463 92 537 90 365 87 714
442 0.47221671092490547 1.3480978779178583 0.21966848490606336 4 4 4 0.31067413494515805 88 451 91 451 90 411 86 519 87 476 84 505
443 0.6211328595207618 1.3929662386227382 0.1324113970322541 38 39 43 0.46447007297472731 91 462 90 414 86 534 84 519
444 0.12695160258173449 -0.34801697392220443 0.16820948982817366 53 59 78 0.12992602081359836 88 477 90 419 86 539 84 537 87 756
445 -0.27114230919207655 -0.3021247422434834 0.24832322210560701 69 75 96 0.30296551172467717 88 488 92 12 90 428 86 780 87 747 84 522 85 653 83 615
446 -0.28963648353023719 -0.26735556811412364 0.26696810025770323 42 48 61 0.46005189349158637 88 489 90 430 86 796 87 903 84 886
447 -0.076314978532165401 -0.29866759113460695 0.21810524629539621 57 62 81 0.31030589745428711 91 9 90 434 87 499 85 444
448 0.25686685615381122 -0.21604368801270554 0.014138486043891396 100 107 126 0.22144086959997211 91 25 90 448 86 570 84 57
449 0.26109206243886895 -0.16960282169973104 -0.015209390431262126 87 94 113 0.11011247423211952 88 506 90 452 86 576
450 0.35898245386806271 -0.22552849176405684 -0.0061681542562554703 43 50 68 0.32056653140922731 92 408 90 453 86 578 84 546
451 0.55500055157027961 -0.24603375878133096 0.019625201505860917 118 125 142 0.21781666637408023 92 586 90 461 86 583
452 0.67962749783913823 -0.26798279806238967 0.11272513840541756 83 91 108 0.47661172670724244 88 521 90 465 86 121
453 -0.26013893579633396 -0.22510545785423849 0.25011083782583687 14 15 25 0.35913292408944913 88 490 90 474 86 552 87 770
454 0.026400768929119356 -0.16104646451143514 0.12025974188231439 35 36 44 0.38415728856938225 92 432 90 480 86 564 84 111 83 659 82 528
455 0.04180836116065173 -0.10676331831910582 0.10039046950608543 56 63 75 0.28394622071130998 91 171 90 481 87 789 84 760
456 0.18539161158475356 -0.14215033080439846 0.0054980787679004273 55 61 75 0.30125575232890062 88 58 91 510 90 482 87 90
457 0.36209060084584943 -0.095999048875463816 -0.077144063900447993 65 67 80 0.32864981744493016 91 520 90 491 84 143 85 141
458 0.44241299024273972 -0.029370793829103015 -0.076678166513865068 59 62 69 0.35425892233685174 92 443 90 499 86 622
